ply
format ascii 1.0
element vertex 667
property float x
property float y
property float z
property uchar red
property uchar green
property uchar blue
end_header
-0.2567007839679718 -0.1095392033457756 0.3800453245639801 145 148 154
-0.25532302260398865 -0.10985273867845535 0.3811315894126892 137 139 149
-0.2546027898788452 -0.11045679450035095 0.3832245171070099 130 137 144
-0.25372353196144104 -0.11100143194198608 0.385111540555954 138 138 144
-0.2526995539665222 -0.11149140447378159 0.38680917024612427 144 145 151
-0.2515851557254791 -0.11194952577352524 0.3883964419364929 138 141 148
-0.2509247660636902 -0.11261933296918869 0.39071717858314514 138 144 153
-0.25012341141700745 -0.1132369190454483 0.39285701513290405 131 133 139
-0.24945776164531708 -0.11392734944820404 0.39524921774864197 144 145 150
-0.24869857728481293 -0.11458687484264374 0.3975343406200409 135 136 141
-0.248118594288826 -0.11534148454666138 0.4001489281654358 147 148 153
-0.24728864431381226 -0.11599241942167282 0.4024042785167694 146 148 152
-0.24672247469425201 -0.11678003519773483 0.4051332473754883 141 142 146
-0.246045783162117 -0.11752929538488388 0.40772929787635803 133 135 139
-0.24550579488277435 -0.1183583214879036 0.41060173511505127 141 140 145
-0.2448933720588684 -0.11916759610176086 0.41340571641921997 150 152 156
-0.24453459680080414 -0.1201167032122612 0.4166942536830902 140 140 143
-0.2438768744468689 -0.12093564122915268 0.4195317327976227 152 150 154
-0.24338454008102417 -0.12185311317443848 0.422710657119751 136 134 138
-0.24304066598415375 -0.12286342680454254 0.42621126770973206 136 133 134
-0.24248561263084412 -0.12378574907779694 0.42940694093704224 140 135 137
-0.24206963181495667 -0.1247979998588562 0.43291422724723816 140 138 139
-0.2423676699399948 -0.12620224058628082 0.4377797544002533 134 132 131
-0.24258555471897125 -0.12759265303611755 0.4425974488258362 143 140 140
-0.24245111644268036 -0.12882426381111145 0.4468648135662079 132 130 131
-0.24230019748210907 -0.13007238507270813 0.45118942856788635 131 125 127
-0.2447577267885208 -0.1327611356973648 0.46050581336021423 146 141 139
-0.32838529348373413 -0.18386277556419373 0.6375734210014343 136 125 124
-0.3246700167655945 -0.18375948071479797 0.6372151970863342 136 125 124
-0.3211681544780731 -0.18377599120140076 0.6372721791267395 140 130 128
-0.3170149028301239 -0.18341605365276337 0.6360246539115906 139 132 130
-0.31331005692481995 -0.18331031501293182 0.6356580257415771 128 125 124
-0.30981317162513733 -0.18332518637180328 0.635709285736084 128 122 120
-0.3073093295097351 -0.18393464386463165 0.6378207802772522 124 123 119
-0.3054606020450592 -0.18495479226112366 0.6413554549217224 123 120 117
-0.3040749132633209 -0.18628253042697906 0.6459558010101318 124 123 119
-0.30224597454071045 -0.18736717104911804 0.6497138142585754 125 122 121
-0.3012692332267761 -0.18901239335536957 0.6554142236709595 124 123 121
-0.29983413219451904 -0.1904067099094391 0.6602452397346497 128 122 119
-0.29874104261398315 -0.19205525517463684 0.6659571528434753 132 126 125
-0.2961064577102661 -0.19274185597896576 0.6683359742164612 135 131 128
-0.3450288474559784 -0.23332567512989044 0.8089579343795776 61 52 43
-0.3423398435115814 -0.23455362021923065 0.8132124543190002 65 55 46
-0.33920183777809143 -0.23550263047218323 0.8165004849433899 68 56 47
-0.3352285325527191 -0.23588970303535461 0.8178412914276123 71 59 50
-0.3310849070549011 -0.2361658662557602 0.8187978863716125 74 61 52
-0.3269682228565216 -0.23646917939186096 0.8198484778404236 78 66 54
-0.32251840829849243 -0.23653678596019745 0.820082426071167 83 67 53
-0.3182717561721802 -0.23675735294818878 0.8208463788032532 81 66 51
-0.3141828775405884 -0.23710331320762634 0.8220447897911072 86 70 54
-0.3099963963031769 -0.23738473653793335 0.8230195641517639 90 75 59
-0.30589696764945984 -0.23774214088916779 0.8242576122283936 96 79 60
-0.301687091588974 -0.23802325129508972 0.8252313733100891 107 90 72
-0.2974877655506134 -0.2383214235305786 0.8262641429901123 112 93 75
-0.2931588292121887 -0.23852349817752838 0.8269640207290649 113 94 77
-0.2886997163295746 -0.23862439393997192 0.827313244342804 129 111 97
-0.2842288613319397 -0.2387186586856842 0.8276395797729492 138 123 115
-0.279784619808197 -0.23883870244026184 0.8280551433563232 136 123 113
-0.27532830834388733 -0.23895227909088135 0.8284482955932617 140 125 117
-0.270738422870636 -0.23895181715488434 0.8284464478492737 159 151 145
-0.2659324109554291 -0.2387574315071106 0.8277725577354431 173 168 163
-0.26130321621894836 -0.23871764540672302 0.827634334564209 173 168 160
-0.25668057799339294 -0.23868249356746674 0.8275122046470642 170 168 166
-0.2520707845687866 -0.23865820467472076 0.8274276852607727 184 186 191
-0.2474193423986435 -0.23859284818172455 0.8272008895874023 186 190 192
-0.24288097023963928 -0.23863601684570312 0.8273500800132751 188 193 197
-0.23831187188625336 -0.23865005373954773 0.8273984789848328 187 192 195
-0.23371826112270355 -0.23863965272903442 0.827362060546875 178 182 186
-0.2290748953819275 -0.2385769933462143 0.8271446228027344 193 197 200
-0.22449781000614166 -0.23858216404914856 0.8271622061729431 187 190 195
-0.21987639367580414 -0.2385394424200058 0.8270137906074524 192 195 201
-0.21525076031684875 -0.23849022388458252 0.8268429040908813 199 201 209
-0.21071867644786835 -0.23854465782642365 0.8270311951637268 196 201 206
-0.2061978131532669 -0.23861442506313324 0.8272725939750671 192 195 201
-0.2016666978597641 -0.23867520689964294 0.8274828791618347 196 201 206
-0.19713808596134186 -0.23874184489250183 0.8277134299278259 199 203 207
-0.19256825745105743 -0.23876053094863892 0.8277778625488281 202 206 211
-0.18803006410598755 -0.23882025480270386 0.8279844522476196 191 192 195
-0.18352796137332916 -0.2389298528432846 0.8283638954162598 186 187 189
-0.1789620965719223 -0.23896001279354095 0.8284680247306824 187 189 193
-0.17434945702552795 -0.2389276921749115 0.8283556699752808 192 193 196
-0.16970250010490417 -0.2388453483581543 0.8280700445175171 193 193 197
-0.16504168510437012 -0.23873838782310486 0.8276991248130798 188 190 194
-0.16041922569274902 -0.23868228495121002 0.8275043964385986 193 193 198
-0.1558055579662323 -0.238636314868927 0.8273447155952454 193 195 199
-0.15120942890644073 -0.23861512541770935 0.8272709846496582 191 192 196
-0.14666154980659485 -0.23867098987102509 0.8274641633033752 193 193 198
-0.1420990526676178 -0.23870587348937988 0.8275847434997559 193 195 198
-0.13752144575119019 -0.23871684074401855 0.8276223540306091 192 193 196
-0.13293404877185822 -0.23871101438999176 0.8276019096374512 194 195 199
-0.12831957638263702 -0.23865444958209991 0.827405571937561 193 193 198
-0.12371735274791718 -0.23861725628376007 0.8272762894630432 191 192 194
-0.11913091689348221 -0.2386086881160736 0.8272463083267212 193 195 198
-0.11456848680973053 -0.23864926397800446 0.8273865580558777 187 190 193
-0.10999198257923126 -0.2386627197265625 0.8274328112602234 192 193 196
-0.10543610900640488 -0.23872385919094086 0.8276443481445312 194 198 201
-0.10086963325738907 -0.23876544833183289 0.8277881145477295 179 182 187
-0.09631673991680145 -0.23884451389312744 0.8280616998672485 179 182 186
-0.09176021814346313 -0.23892197012901306 0.8283297419548035 184 184 186
-0.08720645308494568 -0.23901501297950745 0.8286517858505249 172 174 172
-0.08265034854412079 -0.23911152780056 0.8289858102798462 170 170 171
-0.07807821035385132 -0.23917034268379211 0.8291893005371094 193 193 196
-0.07345980405807495 -0.23908641934394836 0.8288981914520264 169 169 167
-0.06873379647731781 -0.23861947655677795 0.8272799253463745 176 174 170
-0.06421838700771332 -0.23886555433273315 0.8281322717666626 179 178 174
-0.059558793902397156 -0.23857471346855164 0.8271241784095764 156 156 155
-0.04471980035305023 -0.23290780186653137 0.8074879050254822 170 165 158
-0.04031319543719292 -0.23328422009944916 0.8087918162345886 149 144 139
-0.03582488000392914 -0.23322661221027374 0.808591902256012 154 149 144
-0.03137405961751938 -0.23342856764793396 0.8092913031578064 160 157 150
-0.026950892060995102 -0.23393374681472778 0.8110413551330566 145 140 136
-0.022457875311374664 -0.23392102122306824 0.810996949672699 145 140 136
-0.01794992946088314 -0.2337111085653305 0.8102692365646362 160 153 149
-0.013446804136037827 -0.23344603180885315 0.8093504309654236 139 133 130
-0.00895854365080595 -0.2332978993654251 0.8088368773460388 131 110 85
0.04966410994529724 -0.23516561090946198 0.8153039813041687 141 137 131
0.05430634319782257 -0.23572200536727905 0.8172314167022705 154 149 142
0.058828145265579224 -0.23570647835731506 0.8171772956848145 163 156 146
0.06342025101184845 -0.23595653474330902 0.8180434107780457 163 155 147
0.06799992173910141 -0.23612970113754272 0.8186430335044861 157 150 142
0.07260142266750336 -0.23635266721248627 0.8194152116775513 160 153 145
0.0770975723862648 -0.23622480034828186 0.8189718723297119 163 159 151
0.08173462003469467 -0.23652112483978271 0.8199982643127441 176 178 181
0.09653337299823761 -0.23945215344429016 0.8301528692245483 185 187 190
0.10127471387386322 -0.23979538679122925 0.8313418030738831 187 189 193
0.10589824616909027 -0.23984085023403168 0.8314989805221558 187 190 194
0.11068630963563919 -0.24024109542369843 0.8328853845596313 182 186 190
0.1154332384467125 -0.24052318930625916 0.8338625431060791 185 187 190
0.12007169425487518 -0.2405654489994049 0.8340085744857788 187 192 195
0.12469322979450226 -0.24057185649871826 0.8340304493904114 179 182 192
0.12936712801456451 -0.24067561328411102 0.8343895673751831 188 193 201
0.13401265442371368 -0.24072110652923584 0.8345468640327454 193 198 203
0.13860873878002167 -0.24067744612693787 0.8343952298164368 160 165 173
0.14321906864643097 -0.2406606823205948 0.8343368172645569 167 173 183
0.14789898693561554 -0.24075862765312195 0.8346758484840393 186 193 203
0.15256157517433167 -0.24082325398921967 0.8348994255065918 171 177 185
0.1572519838809967 -0.2409268319606781 0.8352579474449158 171 177 187
0.16194438934326172 -0.24102751910686493 0.8356064558029175 178 184 194
0.1666318029165268 -0.24111536145210266 0.8359104990959167 189 195 205
0.17132209241390228 -0.24120256304740906 0.8362123370170593 179 186 193
0.17602169513702393 -0.24129800498485565 0.8365426659584045 205 209 214
0.1807079166173935 -0.24137064814567566 0.8367940187454224 162 164 173
0.18539409339427948 -0.24143962562084198 0.837032675743103 186 193 201
0.19012683629989624 -0.24156460165977478 0.8374652862548828 152 160 167
0.1948540210723877 -0.2416767179965973 0.8378534317016602 155 160 169
0.19952842593193054 -0.24171952903270721 0.8380014300346375 159 163 168
0.20419928431510925 -0.24175623059272766 0.8381282687187195 169 174 178
0.20887044072151184 -0.24179165065288544 0.8382506370544434 182 187 196
0.2135668247938156 -0.2418542057275772 0.838467001914978 152 160 161
0.21828687191009521 -0.24194040894508362 0.8387653827667236 165 171 181
0.2230556160211563 -0.24207600951194763 0.8392348885536194 171 177 186
0.22778290510177612 -0.24216192960739136 0.8395322561264038 187 189 197
0.23250272870063782 -0.24223662912845612 0.8397907018661499 149 151 158
0.23728151619434357 -0.24236880242824554 0.8402482867240906 150 154 161
0.24208538234233856 -0.24252107739448547 0.8407755494117737 175 180 189
0.24691876769065857 -0.24269668757915497 0.841383695602417 162 169 177
0.25162220001220703 -0.2427401840686798 0.8415340185165405 149 155 164
0.2563841640949249 -0.24283769726753235 0.8418715596199036 154 158 168
0.2612752318382263 -0.24305209517478943 0.8426140546798706 165 169 182
0.2661878764629364 -0.24327868223190308 0.8433988094329834 153 158 171
0.27099278569221497 -0.24340058863162994 0.8438208699226379 147 140 134
0.27582889795303345 -0.24354593455791473 0.8443241119384766 198 198 205
0.2809280753135681 -0.2439153492450714 0.8456036448478699 199 203 208
0.2859909236431122 -0.24424155056476593 0.846733570098877 176 161 152
0.29099175333976746 -0.24450501799583435 0.8476461172103882 169 159 151
0.29594171047210693 -0.24471800029277802 0.8483836650848389 176 170 167
0.300725519657135 -0.24478884041309357 0.8486287593841553 155 144 135
0.3053584396839142 -0.24473632872104645 0.8484464883804321 148 133 120
0.3101394772529602 -0.2448025941848755 0.8486757278442383 135 118 101
0.3149017095565796 -0.2448522299528122 0.8488473296165466 129 112 90
0.31973257660865784 -0.24495311081409454 0.8491965532302856 130 108 85
0.32443472743034363 -0.2449537068605423 0.8491982817649841 128 105 82
0.3291788697242737 -0.24498562514781952 0.8493085503578186 126 102 80
0.3337840735912323 -0.24491453170776367 0.8490618467330933 119 99 79
0.33848780393600464 -0.2449168562889099 0.8490695357322693 119 94 78
0.343240886926651 -0.2449544221162796 0.8491993546485901 108 85 62
0.3479076325893402 -0.24493008852005005 0.849114716053009 107 84 64
0.3526343107223511 -0.2449481338262558 0.8491768836975098 99 75 55
0.35686370730400085 -0.24462424218654633 0.8480543494224548 96 73 51
0.3619188666343689 -0.2448684722185135 0.8489001393318176 93 73 55
0.3671589493751526 -0.24523015320301056 0.8501529693603516 90 72 53
0.31511178612709045 -0.20513905584812164 0.7112456560134888 141 138 138
0.31450679898262024 -0.20221255719661713 0.7011057138442993 135 136 137
0.3153449296951294 -0.20027588307857513 0.6943953037261963 137 134 138
0.31663191318511963 -0.19866812229156494 0.6888245344161987 133 131 133
0.3175661265850067 -0.1968795359134674 0.682627260684967 129 126 130
0.3199292719364166 -0.1960103064775467 0.6796152591705322 129 124 127
0.3227328062057495 -0.19542855024337769 0.677599310874939 126 124 125
0.32531458139419556 -0.19472718238830566 0.6751689910888672 132 130 128
0.3285185396671295 -0.19441069662570953 0.6740721464157104 134 130 129
0.331861287355423 -0.19418272376060486 0.6732819676399231 128 123 121
0.33550336956977844 -0.19413338601589203 0.6731107831001282 135 129 126
0.3394184708595276 -0.19424165785312653 0.6734856963157654 131 125 123
0.34343379735946655 -0.1944044828414917 0.6740494966506958 138 134 131
0.3476864695549011 -0.19469694793224335 0.6750625371932983 139 134 131
0.3517950177192688 -0.1949031949043274 0.6757768988609314 133 123 123
0.355374276638031 -0.19481441378593445 0.6754689812660217 136 129 126
0.3595975935459137 -0.1950775533914566 0.676380455493927 134 124 123
-0.2600192129611969 -0.1094958633184433 0.3727315366268158 134 144 152
-0.2591279447078705 -0.1099945530295372 0.37442684173583984 134 136 143
-0.2577258348464966 -0.11028265208005905 0.3754061460494995 133 139 146
-0.2565489113330841 -0.11067257821559906 0.3767316937446594 128 131 142
-0.2557075321674347 -0.11121486127376556 0.3785751461982727 121 130 137
-0.2544056475162506 -0.11156412959098816 0.3797624409198761 140 143 151
-0.25370797514915466 -0.11218641698360443 0.38187792897224426 122 132 140
-0.25284555554389954 -0.11274569481611252 0.3837791681289673 135 134 141
-0.25180402398109436 -0.11323386430740356 0.3854386806488037 140 144 149
-0.2507287263870239 -0.11371506005525589 0.38707447052001953 138 141 149
-0.2501404285430908 -0.1144273653626442 0.38949599862098694 146 150 159
-0.24935273826122284 -0.11506000906229019 0.39164668321609497 140 142 149
-0.24870100617408752 -0.11576704680919647 0.394050270318985 130 131 136
-0.24796511232852936 -0.1164470687508583 0.39636197686195374 136 137 142
-0.24740003049373627 -0.11722014099359512 0.39899009466171265 145 146 151
-0.24656511843204498 -0.11787813156843185 0.4012269377708435 137 137 142
-0.2460189312696457 -0.11868736892938614 0.4039779603481293 136 136 141
-0.24536684155464172 -0.11945988237857819 0.406604140996933 139 136 142
-0.24480202794075012 -0.12028957903385162 0.409424751996994 133 133 137
-0.24421128630638123 -0.12112189829349518 0.4122542440891266 136 134 140
-0.2438374161720276 -0.12207850068807602 0.4155062437057495 148 144 147
-0.24322877824306488 -0.12293463200330734 0.41841673851013184 142 137 141
-0.2427343875169754 -0.1238655298948288 0.42158135771751404 137 134 137
-0.24236740171909332 -0.1248801127076149 0.42503052949905396 130 126 127
-0.24182860553264618 -0.1258251965045929 0.42824336886405945 142 137 138
-0.24131959676742554 -0.12680462002754211 0.4315730035305023 131 130 130
-0.24151913821697235 -0.1281796246767044 0.43624743819236755 135 133 132
-0.24189946055412292 -0.12967927753925323 0.4413456618785858 138 138 137
-0.24339665472507477 -0.13181427121162415 0.4486038386821747 137 130 132
-0.24197909235954285 -0.13239870965480804 0.4505906403064728 139 137 137
-0.24374595284461975 -0.13475550711154938 0.4586029052734375 140 136 133
-0.3247549533843994 -0.18734169006347656 0.6373794674873352 137 129 125
-0.3222384452819824 -0.18793359398841858 0.6393914818763733 142 132 130
-0.31786081194877625 -0.1874413937330246 0.6377179026603699 139 132 129
-0.3135437071323395 -0.1869741827249527 0.6361293196678162 128 121 120
-0.31006598472595215 -0.18700246512889862 0.6362252235412598 125 123 121
-0.3075633943080902 -0.18762612342834473 0.6383453011512756 126 123 120
-0.30584269762039185 -0.18874666094779968 0.6421545147895813 128 126 123
-0.3046357035636902 -0.19021423161029816 0.6471436023712158 125 120 118
-0.3036113381385803 -0.1918320506811142 0.6526433825492859 133 129 127
-0.30275237560272217 -0.1935945451259613 0.6586350798606873 132 130 129
-0.30154991149902344 -0.19517770409584045 0.6640172004699707 139 134 129
-0.3019561469554901 -0.197853684425354 0.6731143593788147 65 56 49
-0.3476070165634155 -0.23352228105068207 0.7943758368492126 62 55 44
-0.3440227508544922 -0.23407787084579468 0.7962643504142761 60 50 41
-0.3408051133155823 -0.23490048944950104 0.7990607023239136 68 60 50
-0.3376293480396271 -0.2357739359140396 0.8020299673080444 68 57 48
-0.3342229425907135 -0.23650749027729034 0.8045234680175781 71 57 49
-0.3299904465675354 -0.23666860163211823 0.8050708770751953 77 63 54
-0.325478732585907 -0.23663116991519928 0.804943323135376 80 68 58
-0.32121849060058594 -0.23677797615528107 0.8054421544075012 71 57 46
-0.31697869300842285 -0.23694415390491486 0.8060068488121033 86 74 64
-0.3127938210964203 -0.2371566891670227 0.8067291378974915 88 76 66
-0.3086376488208771 -0.2373974621295929 0.8075473308563232 94 78 68
-0.3044121265411377 -0.23759113252162933 0.8082055449485779 100 85 71
-0.3002159893512726 -0.23781387507915497 0.8089624047279358 101 83 65
-0.2959241569042206 -0.2379663735628128 0.809480607509613 114 96 79
-0.2916467785835266 -0.23813539743423462 0.8100549578666687 124 119 110
-0.28730180859565735 -0.2382536381483078 0.8104566335678101 136 129 130
-0.2828418016433716 -0.23827873170375824 0.8105416297912598 136 130 128
-0.2783734202384949 -0.2382974624633789 0.810604989528656 140 131 130
-0.27392929792404175 -0.23833785951137543 0.8107420802116394 152 153 150
-0.2694888412952423 -0.23838283121585846 0.8108946681022644 166 168 163
-0.2650114893913269 -0.23839613795280457 0.810939610004425 169 169 164
-0.2603696882724762 -0.23825952410697937 0.8104748725891113 167 166 162
-0.25583741068840027 -0.2382199764251709 0.8103401064872742 171 174 179
-0.25132471323013306 -0.23819753527641296 0.8102635145187378 187 193 199
-0.24684874713420868 -0.23820969462394714 0.810304582118988 184 189 191
-0.2423076629638672 -0.23815833032131195 0.8101296424865723 188 193 197
-0.23787261545658112 -0.23821108043193817 0.8103087544441223 198 201 206
-0.233417347073555 -0.23824524879455566 0.8104246258735657 193 198 202
-0.2289711833000183 -0.23829016089439392 0.8105770349502563 189 195 198
-0.22444762289524078 -0.23825478553771973 0.8104564547538757 196 200 204
-0.2199876755475998 -0.2382867932319641 0.8105649352073669 196 200 205
-0.21550393104553223 -0.23829379677772522 0.8105884790420532 198 201 206
-0.21099236607551575 -0.23826970160007477 0.810506284236908 187 193 197
-0.20655794441699982 -0.23833343386650085 0.8107226490974426 178 181 186
-0.20212644338607788 -0.23840339481830597 0.8109602332115173 173 176 181
-0.19766713678836823 -0.2384430319070816 0.8110946416854858 196 201 205
-0.19322428107261658 -0.23850476741790771 0.8113042116165161 194 193 199
-0.1887287050485611 -0.23850281536579132 0.8112973570823669 191 190 195
-0.18425936996936798 -0.23853470385074615 0.8114054203033447 192 193 196
-0.17982733249664307 -0.23861755430698395 0.8116868138313293 193 193 196
-0.17535211145877838 -0.23864594101905823 0.8117830753326416 192 192 196
-0.17084425687789917 -0.2386302798986435 0.8117294907569885 188 190 194
-0.1662919670343399 -0.2385500818490982 0.8114565014839172 191 190 195
-0.16172613203525543 -0.238445445895195 0.8111005425453186 191 192 196
-0.15718208253383636 -0.23836778104305267 0.8108362555503845 193 195 199
-0.15264983475208282 -0.23830395936965942 0.8106189370155334 194 197 200
-0.14814133942127228 -0.23827435076236725 0.8105180263519287 193 195 199
-0.1436837613582611 -0.23832716047763824 0.8106972575187683 193 193 198
-0.1392231583595276 -0.23837816715240479 0.8108704090118408 193 195 199
-0.1347375214099884 -0.238388329744339 0.8109046220779419 194 197 200
-0.1302391141653061 -0.23837581276893616 0.8108617663383484 196 198 202
-0.12573538720607758 -0.23835228383541107 0.8107814788818359 191 192 195
-0.1212359219789505 -0.23833535611629486 0.8107236623764038 192 193 196
-0.11675158143043518 -0.2383478581905365 0.8107659220695496 182 186 189
-0.11228122562170029 -0.2383909374475479 0.810912013053894 194 198 202
-0.10780157148838043 -0.23841705918312073 0.8110004663467407 194 201 204
-0.10334240645170212 -0.23849251866340637 0.8112567067146301 193 198 202
-0.09887132048606873 -0.23854605853557587 0.8114385008811951 195 200 204
-0.09441488981246948 -0.23864154517650604 0.8117628693580627 200 203 209
-0.08994445204734802 -0.23870949447155 0.8119935393333435 185 186 184
-0.08547760546207428 -0.23879443109035492 0.8122819662094116 182 182 183
-0.08101015537977219 -0.23888693749904633 0.8125962018966675 155 156 158
-0.07652556896209717 -0.2389369159936905 0.8127657771110535 163 164 164
-0.07198452204465866 -0.23880654573440552 0.8123222589492798 185 185 180
-0.06738919019699097 -0.23846760392189026 0.8111697435379028 186 185 180
-0.06294406205415726 -0.238646999001503 0.8117793202400208 187 186 183
-0.058373887091875076 -0.23834598064422607 0.8107556700706482 182 182 179
-0.0438142754137516 -0.23260971903800964 0.7912538051605225 166 163 153
-0.03946875408291817 -0.23282481729984283 0.7919847965240479 129 124 120
-0.03504163771867752 -0.23255667090415955 0.7910729050636292 141 137 132
-0.030751528218388557 -0.23324042558670044 0.7933971285820007 144 138 132
-0.026353608816862106 -0.2332070767879486 0.7932835221290588 143 137 133
-0.021939389407634735 -0.23298995196819305 0.7925450205802917 151 146 144
-0.017534717917442322 -0.23279041051864624 0.7918663620948792 129 115 95
0.004476082976907492 -0.23760148882865906 0.808220624923706 132 124 119
0.008981685154139996 -0.23842062056064606 0.8110050559043884 167 161 153
0.01347079686820507 -0.2383788377046585 0.8108627200126648 159 150 141
0.01793631538748741 -0.23803886771202087 0.8097066879272461 155 143 134
0.02241937629878521 -0.23802682757377625 0.8096654415130615 156 147 134
0.05769594758749008 -0.23558354377746582 0.8013569712638855 160 150 142
0.06221920996904373 -0.23590992391109467 0.8024662733078003 160 152 143
0.06665349006652832 -0.23587578535079956 0.8023499846458435 159 150 141
0.071153424680233 -0.2360651195049286 0.8029932975769043 157 150 140
0.07562649995088577 -0.23614779114723206 0.8032740354537964 158 155 145
0.08012685179710388 -0.2363021820783615 0.8037986159324646 179 181 185
0.09461375325918198 -0.2391807734966278 0.8135837316513062 185 185 195
0.09925685077905655 -0.23951484262943268 0.8147191405296326 166 167 175
0.10375314205884933 -0.23947949707508087 0.8145986795425415 194 197 203
0.10842269659042358 -0.23983201384544373 0.8157967329025269 182 186 194
0.11306637525558472 -0.24010109901428223 0.8167112469673157 186 192 197
0.1176123321056366 -0.24014918506145477 0.8168744444847107 187 192 197
0.12214010953903198 -0.2401578724384308 0.8169037103652954 195 200 207
0.12670649588108063 -0.2402394562959671 0.8171806931495667 176 181 187
0.1312556117773056 -0.24028366804122925 0.8173307180404663 191 195 201
0.13577038049697876 -0.24026402831077576 0.817263662815094 170 174 182
0.14028185606002808 -0.24024003744125366 0.8171818256378174 153 160 170
0.14487692713737488 -0.24035672843456268 0.8175781965255737 154 161 171
0.14945785701274872 -0.24044351279735565 0.817872941493988 175 180 190
0.15406586229801178 -0.2405676394701004 0.8182946443557739 169 176 181
0.15866798162460327 -0.24067574739456177 0.8186618685722351 160 168 175
0.16326889395713806 -0.24077606201171875 0.8190025687217712 168 173 183
0.16787508130073547 -0.2408786118030548 0.8193508982658386 205 209 218
0.17246630787849426 -0.24095481634140015 0.8196096420288086 192 197 201
0.1770658791065216 -0.2410384863615036 0.8198938369750977 165 169 179
0.18166819214820862 -0.24112169444561005 0.820176362991333 149 155 164
0.1863224059343338 -0.24126823246479034 0.8206742405891418 178 186 194
0.1909826546907425 -0.24141545593738556 0.8211744427680969 167 173 172
0.19559051096439362 -0.24149098992347717 0.8214309215545654 145 148 146
0.20018403232097626 -0.24154578149318695 0.8216168880462646 146 144 135
0.2047523409128189 -0.24156832695007324 0.8216932415962219 173 181 191
0.20936591923236847 -0.2416423112154007 0.821944534778595 164 173 182
0.21400867402553558 -0.2417462170124054 0.8222973942756653 149 155 157
0.21871571242809296 -0.24191707372665405 0.8228779435157776 155 159 171
0.22337204217910767 -0.24202588200569153 0.8232475519180298 138 137 130
0.22801361978054047 -0.24211466312408447 0.8235490918159485 143 141 145
0.23269303143024445 -0.24223949015140533 0.8239731192588806 143 146 149
0.23736906051635742 -0.24235601723194122 0.8243690133094788 153 157 166
0.24210214614868164 -0.24252551794052124 0.8249448537826538 176 182 190
0.2467464804649353 -0.24260123074054718 0.8252020478248596 147 153 161
0.2514336109161377 -0.24271565675735474 0.8255906701087952 148 155 162
0.25622278451919556 -0.24292297661304474 0.8262951374053955 140 143 148
0.26103779673576355 -0.2431471049785614 0.8270568251609802 148 150 148
0.2657637596130371 -0.24328187108039856 0.8275146484375 162 155 154
0.270467609167099 -0.24339213967323303 0.8278892040252686 156 146 133
0.27542734146118164 -0.24372564256191254 0.8290227055549622 196 200 205
0.280362606048584 -0.24402685463428497 0.8300463557243347 200 203 207
0.28535109758377075 -0.24436405301094055 0.8311923742294312 173 173 170
0.29024410247802734 -0.24460993707180023 0.8320279121398926 169 165 161
0.2949923574924469 -0.24472782015800476 0.8324283957481384 170 166 161
0.2996462285518646 -0.24476481974124908 0.8325538635253906 160 148 139
0.3043905198574066 -0.24487361311912537 0.832923412322998 153 138 129
0.3091295659542084 -0.2449749857187271 0.8332677483558655 137 123 106
0.31384676694869995 -0.2450563609600067 0.8335440754890442 131 115 97
0.31848081946372986 -0.24507124722003937 0.8335943818092346 121 104 85
0.32310715317726135 -0.2450798898935318 0.833623468875885 122 99 77
0.32773643732070923 -0.24509046971797943 0.8336591124534607 114 94 73
0.3324512541294098 -0.24516400694847107 0.8339087963104248 112 89 68
0.3370636999607086 -0.24516095221042633 0.83389812707901 112 90 71
0.34171348810195923 -0.24518482387065887 0.8339790105819702 102 80 62
0.3464478552341461 -0.2452680468559265 0.8342615962028503 105 81 61
0.3510805666446686 -0.24527797102928162 0.8342950344085693 105 82 61
0.355294793844223 -0.24499857425689697 0.8333449363708496 103 83 64
0.3601052463054657 -0.2451329082250595 0.8338013291358948 93 76 56
0.3645279109477997 -0.24500280618667603 0.8333587646484375 87 71 49
0.3693273663520813 -0.24512648582458496 0.8337788581848145 84 66 45
0.31836554408073425 -0.2060844451189041 0.7010554075241089 149 145 141
0.31757786870002747 -0.2030927538871765 0.6908848881721497 139 138 139
0.3188498318195343 -0.20147642493247986 0.6853899955749512 136 133 135
0.32107672095298767 -0.20049569010734558 0.6820557117462158 134 131 132
0.32421720027923584 -0.2001027762889862 0.6807197332382202 128 124 124
0.32691824436187744 -0.19945022463798523 0.6785012483596802 126 125 123
0.3305436968803406 -0.19937124848365784 0.6782324910163879 134 130 128
0.33418703079223633 -0.1993047595024109 0.6780061721801758 133 129 126
0.338213711977005 -0.1994662582874298 0.6785549521446228 132 124 123
0.34241777658462524 -0.199727863073349 0.6794440746307373 140 135 132
0.34625348448753357 -0.19977089762687683 0.679590106010437 140 135 132
0.34906619787216187 -0.19922800362110138 0.6777443289756775 140 132 130
0.35385286808013916 -0.19981347024440765 0.6797343492507935 140 130 128
0.3570944368839264 -0.19952166080474854 0.6787421107292175 135 128 125
-0.25876349210739136 -0.11102420091629028 0.3709322512149811 124 126 139
-0.25767382979393005 -0.11144216358661652 0.3723268210887909 129 134 144
-0.2563294768333435 -0.11175578832626343 0.37337321043014526 126 129 135
-0.25531116127967834 -0.11221785843372345 0.37491491436958313 126 131 140
-0.25452694296836853 -0.11279121786355972 0.37682801485061646 131 135 144
-0.2532254457473755 -0.11314290761947632 0.3780014216899872 125 130 134
-0.25255560874938965 -0.11378505825996399 0.3801440894603729 140 139 146
-0.2517334818840027 -0.11436880379915237 0.38209182024002075 131 138 141
-0.2506777048110962 -0.11485537886619568 0.38371530175209045 138 140 147
-0.2496778964996338 -0.11537612974643707 0.38545283675193787 143 146 155
-0.2491762489080429 -0.1161380410194397 0.38799506425857544 137 140 149
-0.2484327107667923 -0.11679945886135101 0.39020198583602905 143 146 155
-0.24784086644649506 -0.11754442006349564 0.39268767833709717 139 142 147
-0.2471509426832199 -0.11825564503669739 0.39506077766418457 136 136 143
-0.24660055339336395 -0.1190468966960907 0.3977009057998657 136 137 140
-0.24575461447238922 -0.11970843374729156 0.39990824460983276 141 143 147
-0.24522213637828827 -0.12053607404232025 0.4026697874069214 137 135 140
-0.24461105465888977 -0.12133989483118057 0.405351847410202 142 141 146
-0.2440546303987503 -0.12218594551086426 0.4081748425960541 126 128 130
-0.24350959062576294 -0.12305355817079544 0.41106978058815 145 142 147
-0.24314403533935547 -0.12402905523777008 0.41432473063468933 131 130 128
-0.2425888478755951 -0.12492548674345016 0.417315810918808 141 138 141
-0.24211536347866058 -0.1258816123008728 0.4205061197280884 144 140 141
-0.24176503717899323 -0.1269209384918213 0.42397400736808777 132 130 131
-0.24126140773296356 -0.1278993934392929 0.42723873257637024 125 126 128
-0.2407904714345932 -0.12891466915607452 0.43062639236450195 132 130 131
-0.24087096750736237 -0.13024836778640747 0.43507659435272217 128 124 124
-0.24146898090839386 -0.1318916380405426 0.4405596852302551 135 134 133
-0.24269461631774902 -0.13391464948654175 0.4473099410533905 135 133 134
-0.2418576180934906 -0.13482968509197235 0.4503631293773651 131 126 126
-0.2443215698003769 -0.13762277364730835 0.45968297123908997 134 132 130
-0.31864675879478455 -0.19144946336746216 0.6392908692359924 140 130 128
-0.31413474678993225 -0.19086037576198578 0.6373249292373657 131 126 124
-0.3105100095272064 -0.1908029466867447 0.6371331810951233 124 121 118
-0.30811256170272827 -0.19150681793689728 0.6394816637039185 121 118 115
-0.3072710633277893 -0.1932050883769989 0.6451482176780701 133 130 127
-0.30570894479751587 -0.19448500871658325 0.649418830871582 130 129 125
-0.3042995035648346 -0.19589360058307648 0.6541187763214111 142 133 121
-0.35011202096939087 -0.23372399806976318 0.7803502082824707 68 57 49
-0.34659111499786377 -0.2342662513256073 0.7821593880653381 71 62 53
-0.34357815980911255 -0.23516978323459625 0.7851740121841431 74 64 55
-0.339577853679657 -0.23541219532489777 0.785982608795166 73 63 54
-0.33656516671180725 -0.23635420203208923 0.7891256213188171 75 62 53
-0.3326222598552704 -0.23665933310985565 0.7901435494422913 74 62 53
-0.3286668360233307 -0.23696358501911163 0.7911584973335266 77 65 56
-0.3242133557796478 -0.23691219091415405 0.7909867763519287 80 67 57
-0.31987226009368896 -0.23694264888763428 0.7910881638526917 81 68 57
-0.3156270980834961 -0.23704589903354645 0.7914324402809143 83 70 59
-0.3113793432712555 -0.23715008795261383 0.7917798757553101 91 76 61
-0.30716267228126526 -0.23728123307228088 0.7922172546386719 108 93 78
-0.3029579520225525 -0.23742550611495972 0.7926984429359436 111 96 83
-0.2987379729747772 -0.2375618815422058 0.7931532263755798 112 98 81
-0.2945302724838257 -0.23771220445632935 0.7936545014381409 124 112 101
-0.29022589325904846 -0.23778791725635529 0.7939069271087646 132 125 122
-0.28592342138290405 -0.23786750435829163 0.7941722273826599 133 124 121
-0.2816143333911896 -0.23794397711753845 0.7944270968437195 134 123 121
-0.2772063910961151 -0.23793800175189972 0.7944070100784302 148 143 135
-0.27277371287345886 -0.23791030049324036 0.7943143248558044 170 173 168
-0.2683572471141815 -0.23789604008197784 0.7942664623260498 173 174 175
-0.26393595337867737 -0.23787690699100494 0.7942023873329163 171 171 172
-0.2595522701740265 -0.23789159953594208 0.7942511439323425 171 171 173
-0.2550477087497711 -0.23779410123825073 0.7939255833625793 181 182 187
-0.25067007541656494 -0.2378135323524475 0.7939901947975159 193 197 200
-0.24631059169769287 -0.23785114288330078 0.794115424156189 176 181 185
-0.24193574488162994 -0.23787499964237213 0.794194757938385 179 182 190
-0.23747992515563965 -0.23781868815422058 0.7940065860748291 182 186 193
-0.2331429421901703 -0.2378813773393631 0.7942156195640564 187 190 196
-0.22880558669567108 -0.23794609308242798 0.7944312691688538 195 198 204
-0.2244616448879242 -0.2380063235759735 0.7946319580078125 192 195 200
-0.22004929184913635 -0.2379949986934662 0.7945939898490906 194 198 203
-0.2157142460346222 -0.23806841671466827 0.7948387265205383 195 198 204
-0.21135741472244263 -0.23812037706375122 0.7950118184089661 205 209 214
-0.2069750428199768 -0.2381451576948166 0.7950942516326904 186 190 195
-0.20263780653476715 -0.23822398483753204 0.7953570485115051 186 190 195
-0.19828440248966217 -0.23828688263893127 0.7955666780471802 202 206 211
-0.19391319155693054 -0.23833072185516357 0.7957126498222351 202 206 210
-0.1895700842142105 -0.23841188848018646 0.7959833145141602 193 195 199
-0.18515905737876892 -0.23840954899787903 0.7959752082824707 196 198 202
-0.18077024817466736 -0.23843632638454437 0.7960643172264099 199 201 206
-0.1764201819896698 -0.238516703248024 0.7963322997093201 192 195 199
-0.17202773690223694 -0.23854246735572815 0.7964180111885071 194 198 204
-0.16760525107383728 -0.23852689564228058 0.7963657975196838 195 197 201
-0.16314652562141418 -0.2384575605392456 0.7961341738700867 202 203 208
-0.15868806838989258 -0.23838472366333008 0.7958909273147583 192 193 197
-0.15422828495502472 -0.23830565810203552 0.7956268191337585 201 203 208
-0.14978083968162537 -0.2382415533065796 0.7954126596450806 199 203 207
-0.14534315466880798 -0.2381894588470459 0.7952386140823364 199 200 204
-0.14093376696109772 -0.23818181455135345 0.7952128648757935 198 198 203
-0.1365276277065277 -0.2381792813539505 0.7952041625976562 186 193 195
-0.13211743533611298 -0.23816928267478943 0.7951705455780029 145 151 156
-0.12769964337348938 -0.2381444126367569 0.7950873374938965 163 169 172
-0.12328071147203445 -0.23811548948287964 0.7949905395507812 143 150 152
-0.11886326968669891 -0.23808740079402924 0.7948966026306152 176 185 186
-0.11446394771337509 -0.23809470236301422 0.7949206829071045 191 195 200
-0.11007058620452881 -0.23811538517475128 0.7949895262718201 175 179 185
-0.10566439479589462 -0.23810890316963196 0.7949675917625427 176 184 187
-0.10129700601100922 -0.23819278180599213 0.7952472567558289 176 182 187
-0.09692252427339554 -0.23826684057712555 0.7954941391944885 173 181 185
-0.09257347136735916 -0.23841314017772675 0.7959820628166199 173 181 189
-0.08820519596338272 -0.23852215707302094 0.7963455319404602 176 180 183
-0.08382551372051239 -0.2386101633310318 0.7966389060020447 168 169 171
-0.07944075763225555 -0.23869267106056213 0.7969139814376831 156 157 159
-0.07503136247396469 -0.23870669305324554 0.7969605326652527 146 143 143
-0.07056822627782822 -0.23854148387908936 0.7964090704917908 137 134 133
-0.06609543412923813 -0.23831966519355774 0.7956686615943909 139 137 136
-0.061719585210084915 -0.23843887448310852 0.796066164970398 137 136 138
-0.057183388620615005 -0.23791277408599854 0.794310450553894 143 140 136
-0.0476829931139946 -0.21506083011627197 0.718059778213501 160 134 79
-0.042911380529403687 -0.23214590549468994 0.7750673294067383 159 155 150
-0.03877531737089157 -0.2330792397260666 0.7781813144683838 152 150 138
-0.034372586756944656 -0.2324575036764145 0.7761065363883972 153 150 140
-0.030090732499957085 -0.23258383572101593 0.7765278220176697 140 137 132
-0.004350513685494661 -0.23576883971691132 0.7871538400650024 168 165 153
7.125436695787357e-06 -0.23694980144500732 0.7910941243171692 162 156 151
0.004397287964820862 -0.23747727274894714 0.792853832244873 155 150 144
0.008783899247646332 -0.23735539615154266 0.7924469113349915 166 157 150
0.013208656571805477 -0.23802480101585388 0.7946802973747253 162 154 142
0.017623746767640114 -0.23821936547756195 0.7953292727470398 162 154 143
0.022037167102098465 -0.23831669986248016 0.795653760433197 158 145 136
0.026274392381310463 -0.2367701381444931 0.7904931902885437 157 152 140
0.030621111392974854 -0.23652735352516174 0.7896828055381775 166 157 149
0.06533444672822952 -0.23554053902626038 0.7863881587982178 160 153 151
0.06980852037668228 -0.2359459549188614 0.7877406477928162 156 149 149
0.07422147691249847 -0.23610801994800568 0.7882811427116394 167 165 169
0.07860851287841797 -0.23617371916770935 0.788500189781189 176 177 186
0.08361038565635681 -0.22603526711463928 0.7546708583831787 170 167 151
0.09273373335599899 -0.2388281524181366 0.7973564267158508 187 190 195
0.09725359827280045 -0.23908604681491852 0.7982166409492493 186 189 193
0.10172149538993835 -0.2391987442970276 0.7985924482345581 182 186 189
0.10627526044845581 -0.2394963502883911 0.799585223197937 185 187 193
0.11081967502832413 -0.23974986374378204 0.8004308342933655 189 193 198
0.11526428163051605 -0.2397753894329071 0.8005157709121704 185 189 190
0.11970465630292892 -0.23979057371616364 0.8005661964416504 193 198 203
0.1241699680685997 -0.23985306918621063 0.8007744550704956 200 206 213
0.12862302362918854 -0.23988832533359528 0.8008918762207031 191 195 203
0.13304917514324188 -0.23987263441085815 0.8008392453193665 173 178 185
0.13747207820415497 -0.23985227942466736 0.8007711172103882 148 155 163
0.14196895062923431 -0.23995867371559143 0.8011258244514465 149 156 164
0.14644862711429596 -0.24003036320209503 0.8013648390769958 168 174 183
0.15095756947994232 -0.24014458060264587 0.8017456531524658 185 193 198
0.1554660201072693 -0.24025152623653412 0.8021022081375122 160 168 177
0.15999194979667664 -0.24037890136241913 0.8025269508361816 182 189 197
0.16452662646770477 -0.24051222205162048 0.802971601486206 194 197 204
0.16904594004154205 -0.2406165897846222 0.8033195734024048 199 205 209
0.17357636988162994 -0.2407311201095581 0.8037014603614807 192 197 201
0.17809247970581055 -0.24082051217556 0.8039995431900024 205 211 215
0.1826687753200531 -0.2409851998090744 0.8045487403869629 181 185 194
0.1872592568397522 -0.2411603480577469 0.8051329255104065 172 176 184
0.1918216347694397 -0.24129195511341095 0.8055717945098877 136 139 128
0.1963484138250351 -0.2413736879825592 0.805844247341156 155 158 158
0.20084041357040405 -0.24140992760658264 0.8059649467468262 144 144 138
0.20535951852798462 -0.24147655069828033 0.8061869740486145 159 169 172
0.20990876853466034 -0.24157515168190002 0.8065157532691956 160 166 177
0.2145320177078247 -0.2417532354593277 0.8071096539497375 142 147 150
0.21909476816654205 -0.2418571412563324 0.8074561357498169 163 171 182
0.22365625202655792 -0.24195553362369537 0.8077841401100159 141 132 125
0.22823625802993774 -0.24206975102424622 0.8081650137901306 144 149 157
0.23281724750995636 -0.24218064546585083 0.8085348010063171 129 134 143
0.2374451756477356 -0.24233537912368774 0.8090507984161377 164 167 173
0.24202001094818115 -0.24243108928203583 0.8093699216842651 146 145 135
0.24665360152721405 -0.24258126318454742 0.8098707795143127 157 165 170
0.25134947896003723 -0.24278637766838074 0.8105549216270447 160 165 173
0.25607556104660034 -0.24301300942897797 0.811310887336731 158 162 167
0.2607450783252716 -0.24317899346351624 0.81186443567276 142 146 146
0.2653982639312744 -0.2433243840932846 0.8123493194580078 151 153 163
0.2702075242996216 -0.24360592663288116 0.8132884502410889 122 126 130
0.2749989330768585 -0.2438623607158661 0.8141438364982605 191 195 198
0.2799248695373535 -0.24422816932201385 0.8153641223907471 198 201 205
0.28482791781425476 -0.24456267058849335 0.8164800405502319 178 177 175
0.28953883051872253 -0.24472402036190033 0.8170180916786194 182 180 175
0.2941056787967682 -0.24476027488708496 0.8171388506889343 173 168 161
0.29878947138786316 -0.2448914647102356 0.8175762891769409 176 170 165
0.30348554253578186 -0.24502871930599213 0.8180340528488159 153 139 129
0.30817124247550964 -0.24515369534492493 0.8184507489204407 149 135 124
0.3127242624759674 -0.24517081677913666 0.8185076117515564 138 121 105
0.31732049584388733 -0.24522095918655396 0.8186746835708618 132 115 94
0.32190102338790894 -0.24525770545005798 0.8187969923019409 124 101 77
0.3265898823738098 -0.24537497758865356 0.8191880583763123 120 101 76
0.3311236500740051 -0.2453738898038864 0.8191841840744019 115 94 70
0.33565300703048706 -0.24536965787410736 0.819169819355011 109 86 63
0.3403039276599884 -0.2454533725976944 0.8194488883018494 107 82 65
0.34510794281959534 -0.24564409255981445 0.8200849890708923 104 84 65
0.3493635952472687 -0.2454439103603363 0.8194167613983154 106 86 67
0.3537503182888031 -0.24533997476100922 0.8190697431564331 110 86 69
0.35763901472091675 -0.2448970079421997 0.8175914883613586 99 80 60
0.36212942004203796 -0.2448727786540985 0.8175103664398193 91 74 54
0.366215318441391 -0.2445785254240036 0.8165283203125 83 65 45
0.36936670541763306 -0.2436739206314087 0.8135097622871399 86 65 44
0.32172849774360657 -0.20713284611701965 0.6915857195854187 147 140 140
0.32358866930007935 -0.20587797462940216 0.6873984932899475 138 136 137
0.3266236186027527 -0.2053925096988678 0.6857784390449524 132 125 123
0.3288266062736511 -0.20440004765987396 0.6824668049812317 129 124 122
0.33247071504592896 -0.20431752502918243 0.6821911931037903 138 133 130
0.3368367552757263 -0.20467638969421387 0.6833884119987488 139 134 131
0.34276506304740906 -0.20596787333488464 0.6876973509788513 145 135 133
0.34734153747558594 -0.20642603933811188 0.6892258524894714 135 130 127
-0.2572188675403595 -0.11240632832050323 0.36871927976608276 112 124 133
-0.2562198042869568 -0.11286652833223343 0.3702268898487091 129 130 140
-0.2551060914993286 -0.11328321695327759 0.3715919554233551 120 124 136
-0.2540855407714844 -0.11374840140342712 0.3731158971786499 126 131 140
-0.2533220946788788 -0.114337258040905 0.3750450015068054 134 134 140
-0.2520384192466736 -0.11469905823469162 0.37623023986816406 122 130 138
-0.25132307410240173 -0.11532770842313766 0.37828972935676575 130 132 137
-0.2504901885986328 -0.11591251194477081 0.38020557165145874 129 136 143
-0.24936896562576294 -0.11637266725301743 0.38171303272247314 132 135 143
-0.24841958284378052 -0.1169215515255928 0.38351118564605713 141 144 149
-0.2479487955570221 -0.11770710349082947 0.38608473539352417 124 126 132
-0.24726641178131104 -0.11840496957302094 0.38837096095085144 128 133 139
-0.2467089295387268 -0.11917541176080704 0.39089497923851013 125 126 131
-0.24602970480918884 -0.11990014463663101 0.39326927065849304 129 134 137
-0.24548770487308502 -0.12070529162883759 0.3959069848060608 137 135 140
-0.24462412297725677 -0.12136538326740265 0.39806947112083435 133 133 138
-0.2441289722919464 -0.12222190946340561 0.4008755087852478 130 131 135
-0.24359671771526337 -0.12307539582252502 0.40367159247398376 135 135 137
-0.24310585856437683 -0.123965784907341 0.4065885841846466 124 128 129
-0.24264362454414368 -0.12488752603530884 0.40960827469825745 136 134 139
-0.24236130714416504 -0.1259201169013977 0.41299113631248474 141 139 143
-0.24193963408470154 -0.12689927220344543 0.4161989092826843 134 134 136
-0.2416599541902542 -0.12797243893146515 0.41971468925476074 135 133 136
-0.2415168285369873 -0.12913940846920013 0.42353782057762146 133 131 132
-0.2410832643508911 -0.13017244637012482 0.42692217230796814 135 133 136
-0.24078814685344696 -0.1313014179468155 0.4306207597255707 128 126 125
-0.24087338149547577 -0.13266238570213318 0.4350794553756714 132 130 131
-0.2414049357175827 -0.13429908454418182 0.44044142961502075 130 126 127
-0.2428598701953888 -0.13648799061775208 0.44761261343955994 130 123 123
-0.24207225441932678 -0.13744895160198212 0.45076075196266174 136 132 131
-0.24472202360630035 -0.14040154218673706 0.4604339003562927 141 138 135
-0.3124092221260071 -0.1933266520500183 0.6338252425193787 136 138 135
-0.3093928396701813 -0.1936366707086563 0.6348407864570618 128 123 120
-0.3073984980583191 -0.19460062682628632 0.637998640537262 136 135 134
-0.3494092524051666 -0.23184844851493835 0.7600283622741699 63 59 49
-0.34777694940567017 -0.23357979953289032 0.7657003998756409 75 63 54
-0.3444545865058899 -0.23420506715774536 0.7677487134933472 78 65 56
-0.34098169207572937 -0.23474237322807312 0.7695087790489197 78 65 56
-0.3386581540107727 -0.23609425127506256 0.7739375233650208 75 63 54
-0.33467164635658264 -0.23630693554878235 0.7746341228485107 80 68 59
-0.3303939700126648 -0.23631694912910461 0.7746667861938477 81 68 59
-0.3252701461315155 -0.23571422696113586 0.7726919054985046 83 70 59
-0.32236024737358093 -0.23672062158584595 0.7759888172149658 80 69 57
-0.31810203194618225 -0.23675104975700378 0.776088297367096 86 71 58
-0.31363603472709656 -0.2366255670785904 0.7756770253181458 91 76 63
-0.30928441882133484 -0.23658409714698792 0.7755408883094788 106 91 78
-0.30495312809944153 -0.23655718564987183 0.7754525542259216 111 96 83
-0.3007412552833557 -0.23662340641021729 0.7756693363189697 113 98 85
-0.29665225744247437 -0.2367895394563675 0.7762134075164795 117 109 96
-0.2925715744495392 -0.2369672805070877 0.7767954468727112 133 124 119
-0.288442999124527 -0.2371109426021576 0.7772659659385681 135 124 123
-0.28423529863357544 -0.23719294369220734 0.7775343656539917 134 123 122
-0.2799929082393646 -0.23724810779094696 0.7777149081230164 142 139 134
-0.2757386863231659 -0.2372947484254837 0.7778674960136414 173 173 172
-0.2714157998561859 -0.2372828722000122 0.7778283953666687 176 177 177
-0.2670747637748718 -0.23725447058677673 0.7777351140975952 173 176 175
-0.26277783513069153 -0.237264946103096 0.7777692675590515 173 174 173
-0.2584453225135803 -0.23724310100078583 0.7776974439620972 171 171 172
-0.2541302740573883 -0.23723676800727844 0.777676522731781 187 189 192
-0.24969743192195892 -0.2371184378862381 0.7772886753082275 193 195 199
-0.24547892808914185 -0.23720286786556244 0.777565062046051 169 172 171
-0.2413083165884018 -0.2373373955488205 0.7780055999755859 176 181 185
-0.23704572021961212 -0.23738473653793335 0.7781604528427124 178 182 187
-0.23269055783748627 -0.23733946681022644 0.7780119180679321 181 185 189
-0.22845612466335297 -0.2374177873134613 0.7782683968544006 187 190 194
-0.22424817085266113 -0.23752716183662415 0.7786264419555664 146 151 154
-0.22007599472999573 -0.2376793771982193 0.779124915599823 181 182 187
-0.2158096879720688 -0.23773406445980072 0.7793039083480835 182 186 191
-0.21158945560455322 -0.23784270882606506 0.7796595692634583 181 184 189
-0.2073397934436798 -0.2379220873117447 0.779919445514679 187 190 197
-0.20307090878486633 -0.23798230290412903 0.7801165580749512 176 180 189
